-0.0967099 -0.0458399 1.3585
-0.0967145 -0.0458228 1.35854
-0.0952379 -0.0709215 1.42192
-0.0944315 -0.0520131 1.35913
-0.0905585 -0.0460817 1.35752
-0.0971431 -0.0446303 1.35877
-0.0989944 -0.0434986 1.3605
-0.0872118 -0.0586163 1.35407
-0.106115 -0.0412901 1.36324
-0.105309 -0.0593236 1.35377
-0.0987927 -0.0495783 1.35634
-0.10729 -0.0599151 1.35318
-0.103231 -0.0479944 1.35685
-0.0989439 -0.0453957 1.3572
-0.084209 -0.048153 1.35888
-0.0832674 -0.0514864 1.36004
-0.0978361 -0.0444593 1.35922
-0.0926699 -0.0452573 1.35819
-0.0910113 -0.0456068 1.35755
-0.103848 -0.0482305 1.35707
-0.097198 -0.0442546 1.35893
-0.0930766 -0.0441946 1.35921
-0.0923115 -0.0447667 1.358
-0.0906956 -0.0446966 1.35848
-0.0982243 -0.0484834 1.35727
-0.0983949 -0.0433668 1.35942
-0.108857 -0.0601166 1.35314
-0.111041 -0.0595805 1.35331
-0.109797 -0.0591479 1.35334
-0.0960097 -0.0469015 1.35833
-0.109841 -0.0591398 1.3534
-0.0913787 -0.0465868 1.35872
-0.0913652 -0.0466175 1.35874
-0.0941889 -0.0552229 1.35847
-0.0985375 -0.045646 1.35756
-0.111528 -0.0584593 1.35357
-0.115436 -0.0415934 1.36171
-0.110495 -0.0595947 1.35357
-0.0963397 -0.0436187 1.36014
-0.0977927 -0.04737 1.3578
-0.105862 -0.0655601 1.35148
-0.0994802 -0.0461883 1.35762
-0.109112 -0.0587584 1.35323
-0.0929513 -0.0470173 1.35862
-0.10585 -0.0655626 1.35145
-0.105485 -0.044828 1.35912
-0.102395 -0.063934 1.35255
-0.104753 -0.0654178 1.35156
-0.0946651 -0.0470571 1.35615
-0.105811 -0.0635336 1.35225
-0.111371 -0.0439915 1.35869
-0.110349 -0.0427246 1.36164
-0.110349 -0.0427246 1.36164
-0.09737 -0.067206 1.37431
-0.10738 -0.0653048 1.35167
-0.0916632 -0.0641594 1.35875
-0.106233 -0.0644525 1.3518
-0.0835317 -0.0619613 1.37117
-0.0984248 -0.0484769 1.35782
-0.103544 -0.0624537 1.35254
-0.106547 -0.0595784 1.35355
-0.102843 -0.0449775 1.35963
-0.102983 -0.0646896 1.35197
-0.102974 -0.0646916 1.35196
-0.0844674 -0.048031 1.36043
-0.0844674 -0.048031 1.36043
-0.105417 -0.0448983 1.39167
-0.108514 -0.0598017 1.3533
-0.10852 -0.0598109 1.35331
-0.0819175 -0.0521379 1.35692
-0.0984833 -0.0431232 1.35994
-0.0962091 -0.0445597 1.36088
-0.0986846 -0.0506843 1.35444
-0.0907574 -0.046513 1.3588
-0.111799 -0.0435759 1.36033
-0.0966995 -0.0493933 1.35759
-0.0970444 -0.0448952 1.35818
-0.0909869 -0.0458095 1.35713
-0.0910351 -0.0446915 1.35819
-0.115606 -0.041432 1.36203
-0.113943 -0.0430459 1.36013
-0.0934641 -0.0528972 1.35526
-0.107812 -0.0597377 1.35335
-0.100369 -0.0477483 1.35704
-0.0874072 -0.0648057 1.34996
-0.0913519 -0.0465446 1.35874
-0.107942 -0.044586 1.35793
-0.111529 -0.059676 1.35286
-0.110838 -0.0582341 1.35363
-0.0938272 -0.0620183 1.3595
-0.0885493 -0.0524139 1.35657
-0.0901014 -0.0475324 1.35859
-0.10116 -0.070682 1.36429
-0.117494 -0.0413592 1.36355
-0.10169 -0.0654199 1.35206
-0.110544 -0.048956 1.35709
-0.110986 -0.0591008 1.35332
-0.109596 -0.0649543 1.35261
-0.0906173 -0.0515925 1.35834
-0.097967 -0.050176 1.35262
-0.108495 -0.0602413 1.35315
-0.102068 -0.0469691 1.3595
-0.0821659 -0.0517961 1.3595
-0.0972607 -0.0486141 1.35843
-0.0972607 -0.0486141 1.35843
-0.0976921 -0.0448475 1.35837
-0.102241 -0.0494435 1.35572
-0.110994 -0.0587205 1.35355
-0.106008 -0.0647382 1.35193
-0.110391 -0.0653126 1.35126
-0.0838153 -0.0647226 1.34953
-0.093776 -0.061783 1.32602
-0.103314 -0.046387 1.35846
-0.109212 -0.0493901 1.35631
-0.110878 -0.0644908 1.35139
-0.10883 -0.0601219 1.35311
-0.0844175 -0.0477792 1.35865
-0.0935238 -0.0421664 1.3656
-0.112413 -0.0596318 1.3532
-0.112405 -0.0596384 1.35318
-0.11162 -0.0596667 1.35294
-0.108466 -0.0602539 1.35311
-0.10273 -0.0493164 1.35574
-0.105542 -0.0604026 1.35298
-0.103931 -0.0600475 1.35095
-0.109764 -0.0632167 1.35215
-0.0837167 -0.0609967 1.35472
-0.105757 -0.0636495 1.35334
-0.101806 -0.0492002 1.35487
-0.092431 -0.0650825 1.32241
-0.103252 -0.0657338 1.35195
-0.0901004 -0.0571197 1.35545
-0.0870134 -0.0572057 1.35566
-0.109463 -0.0495555 1.35634
-0.0924572 -0.0649033 1.3205
-0.0924572 -0.0649033 1.3205
-0.0874688 -0.047258 1.35891
-0.106527 -0.065227 1.35158
-0.0986025 -0.0487534 1.3563
-0.0844493 -0.0616887 1.35282
-0.10506 -0.0655694 1.3516
-0.090098 -0.0570878 1.35546
-0.103663 -0.0641948 1.35238
-0.0917528 -0.0473047 1.35849
-0.0958568 -0.0506106 1.35416
-0.109519 -0.0597801 1.35318
-0.0818347 -0.0501364 1.36097
-0.10076 -0.04849 1.35563
-0.0859484 -0.0489155 1.35823
-0.0859484 -0.0489155 1.35823
-0.0951649 -0.0508913 1.35706
-0.0884263 -0.0586991 1.35503
-0.0873017 -0.0478275 1.3595
-0.115598 -0.0460803 1.4697
-0.0896632 -0.0558069 1.34747
-0.0737188 -0.0517618 1.3559
-0.107998 -0.0588454 1.35449
-0.0783924 -0.0600198 1.34681
-0.0931959 -0.0606679 1.35445
-0.0765363 -0.0581972 1.3498
-0.0837974 -0.0614368 1.35454
-0.103814 -0.063467 1.35256
-0.0861154 -0.0614139 1.35436
-0.0971722 -0.0489201 1.35758
-1.33002 5.40741 12.145
-0.086904 -0.0624523 1.34016
-0.0831137 -0.0621065 1.35133
-0.0824835 -0.0609265 1.35589
-0.0926961 -0.066857 1.32313
-0.10594 -0.0639317 1.35168
-0.0924283 -0.0602878 1.35442
-0.104422 -0.060749 1.35336
-0.105137 -0.0643386 1.35189
-0.105137 -0.0643386 1.35189
-0.0822996 -0.052141 1.35723
-0.104603 -0.063605 1.35188
-0.104992 -0.0649409 1.34621
-0.106425 -0.0635391 1.35217
-0.0824358 -0.0686002 1.35238
-0.102216 -0.063555 1.35294
-0.104359 -0.0630369 1.35302
-0.104654 -0.0497984 1.35555
-0.0901039 -0.0611599 1.35413
-0.0931299 -0.0685691 1.3225
-0.0958254 -0.0542505 1.34877
-0.089702 -0.0680473 1.3323
0.00903104 0.0537964 2.0006
-0.0759879 -0.0530751 1.35306
-11.1304 25.2758 91.0543
-0.0900748 -0.0609839 1.35454
-0.0987929 -0.0525985 1.35438
-0.0991385 -0.0507668 1.35882
-0.105493 -0.0656642 1.35184
-0.0895189 -0.0576219 1.358
-0.0840595 -0.0537041 1.35647
-0.0872062 -0.0681702 1.36003
-0.0810271 -0.0611742 1.3578
-0.0948892 -0.0694416 1.32739
-0.0945089 -0.0501006 1.35684
-0.0886302 -0.0645071 1.37372
-0.0857619 -0.0517937 1.35814
-0.0816707 -0.0522539 1.35684
-0.0945377 -0.0501166 1.3594
-0.104305 -0.05929 1.3544
-0.0842743 -0.0615826 1.35488
-0.0798288 -0.0601195 1.37309
-0.097783 -0.0524578 1.35515
-0.0986487 -0.0501238 1.35603
-0.0947427 -0.0694419 1.3254
-0.0840663 -0.0594199 1.38603
-0.081786 -0.0489214 1.35808
-0.0945762 -0.060444 1.35804
-0.0895156 -0.057432 1.35543
-0.1046 -0.0598306 1.35387
-0.0945405 -0.0591792 1.36755
-0.0953936 -0.0581247 1.36005
-0.0821899 -0.0559373 1.35581
-0.0822224 -0.049154 1.35859
-0.0954843 -0.0591071 1.369
-0.0898796 -0.0575158 1.35535
-0.0886281 -0.0536779 1.35501
-0.0967844 -0.0494602 1.35747
-0.0875689 -0.0552438 1.35623
-0.0900025 -0.0571396 1.35514
-0.0899626 -0.0570546 1.35522
-0.0889972 -0.0591054 1.35485
-0.0933167 -0.0522174 1.35625
-0.0943865 -0.0697471 1.32576
-0.0943865 -0.0697471 1.32576
-0.104339 -0.0598788 1.35349
-0.088426 -0.0586893 1.35506
-0.105838 -0.0603329 1.35312
-0.0947818 -0.0558475 1.36163
-0.0828737 -0.0525361 1.35735
-0.088266 -0.0591946 1.35484
-0.0855611 -0.0520895 1.35759
-0.0821176 -0.0555268 1.35666
-0.12896 0.0378311 1.55054
-0.0840358 -0.0614908 1.35463
-0.0812342 -0.0615402 1.38604
-0.0844319 -0.0534955 1.35727
-0.0936779 -0.0617542 1.35474
-0.0865456 -0.0619493 1.35406
-0.0898632 -0.0574934 1.35537
-0.0913357 -0.0611285 1.35389
-0.0897738 -0.061243 1.35405
-0.0838661 -0.0522121 1.35768
-0.136284 0.0392124 1.53659
-0.0935124 -0.0623729 1.35322
-0.138489 0.0359147 1.5355
-0.0893248 -0.0608156 1.35434
-0.0949456 -0.0616261 1.35354
-0.0811096 -0.052964 1.35679
-0.13809 0.0187365 1.54964
-0.0937445 -0.0603077 1.35401
-0.139086 0.033556 1.5097
-0.0958844 -0.0617 1.35413
-0.0929448 -0.0609035 1.35411
-0.147815 0.0318551 1.53462
-0.139163 0.00672876 1.57106
-0.0476969 0.00708456 1.58735
-0.0890577 -0.0498998 1.35853
-0.0873398 -0.0558624 1.35613
-0.0705609 -0.0515064 1.3598
-0.0867111 -0.0570015 1.35571
-0.0912225 -0.0614022 1.35404
-0.135818 0.0365857 1.52159
-0.0943778 -0.0519342 1.35756
-0.0472857 0.0128497 1.58166
-0.105841 -0.0266286 1.39143
-0.0857471 -0.0509351 1.35898
-0.0869671 -0.0589403 1.35496
-0.0941343 -0.0628379 1.35334
-0.0553648 0.0287796 1.59333
-0.146836 0.0053476 1.59037
-0.0938952 -0.0588024 1.35303
-0.0941982 -0.0598591 1.35297
-0.0915685 -0.0613923 1.35381
-0.080554 -0.0547052 1.35928
-0.0999719 -0.059943 1.36203
-0.0914663 -0.0614598 1.35408
-0.144501 0.0180931 1.57996
-0.141655 0.0444263 1.55137
-0.158585 -0.00406206 1.5889
-0.0830699 -0.0613837 1.35436
-0.083132 -0.0614135 1.35426
-0.13995 0.0250576 1.56488
-0.0826418 -0.0532695 1.35733
-0.0584414 0.0295622 1.58637
-0.089706 -0.0627681 1.35541
-0.156493 0.00707759 1.5921
-0.155701 0.00248427 1.59811
-0.00409474 0.0199149 1.64329
-0.160917 -0.00159628 1.59902
-0.0942054 -0.0576663 1.35624
-0.157761 0.00485785 1.60658
-0.155805 0.0010324 1.64086
-0.0942417 -0.0607431 1.35248
-0.0922384 -0.0609932 1.35391
-0.0847829 -0.0610836 1.35463
-0.134067 0.0437521 1.52358
-0.140996 0.0442867 1.54122
-0.0836954 -0.0616851 1.35041
-0.0828321 -0.0515876 1.35811
-0.0942062 -0.0546904 1.36128
-0.0840332 -0.0612916 1.35458
-0.0971521 -0.0489282 1.3576
-0.0873678 -0.0469077 1.3593
-0.0901045 -0.0475206 1.35857
-0.0897297 -0.0505196 1.35733
-0.0973531 -0.0483131 1.35777
-0.0748964 -0.05196 1.35535
-0.084334 -0.0476474 1.35901
-0.0896276 -0.0590131 1.34847
-0.0909456 -0.0513473 1.35643
-0.0965378 -0.0485164 1.35794
-0.0886437 -0.0619608 1.35305
-0.0943236 -0.0490476 1.35819
-0.0895103 -0.0601634 1.35308
-0.0913314 -0.0466087 1.35886
-0.084138 0.0276541 1.52876
-0.0836146 -0.0699253 1.34803
-0.0901197 -0.0480711 1.35809
-0.0936745 -0.0455258 1.35882
-0.0864356 -0.0532303 1.35667
-0.0901441 -0.0456715 1.35908
-0.0795194 -0.053949 1.36102
-0.0966776 0.0372119 1.5543
-0.0881852 -0.0579097 1.35523
-0.0413556 0.0256129 1.53205
-0.0544872 0.025162 1.52877
-0.0949181 -0.0480513 1.3581
-0.0871378 0.0468751 1.57451
-0.0928806 0.0329475 1.53833
-0.0978774 -0.0444102 1.3592
-0.0987263 -0.0450223 1.35878
-0.0984328 -0.0441363 1.3594
-0.0983909 -0.0442553 1.3593
-0.0821162 -0.0564436 1.35399
-0.0917484 -0.0471421 1.35866
-0.0882207 -0.0580691 1.35505
-0.0838887 -0.0540255 1.35672
-0.100194 -0.0531993 1.35407
-0.0984541 -0.0430653 1.35957
-0.0928747 -0.0500096 1.35744
-0.0904239 -0.0498386 1.35785
-0.0971919 -0.0441506 1.35926
-0.0984242 -0.0431474 1.35953
-0.100034 -0.0440104 1.35915
-0.105668 -0.0442935 1.35851
-0.0836098 -0.0645106 1.35335
-0.0970598 -0.0502432 1.35719
-0.0978898 -0.0443527 1.35924
-0.0907152 -0.0522126 1.35723
-0.0993352 -0.0418439 1.35987
-0.0923693 -0.00170651 1.46987
-0.0856453 -0.0457486 1.35975
-0.0815624 -0.0503859 1.35701
-0.0960813 -0.0411735 1.36036
-0.0846858 -0.0705028 1.34657
-0.0969753 -0.0442081 1.35965
-0.0941625 -0.0606936 1.35391
-0.0874258 -0.0483469 1.35864
-0.0779214 -0.0604153 1.36234
-0.0841862 -0.0635915 1.3544
-0.0827191 -0.0504485 1.35805
-0.0843246 -0.0635793 1.3538
-0.0991564 -0.047401 1.35569
-0.0806933 -0.0371995 1.3625
-0.0946549 -0.0419539 1.36043
-0.0903429 -0.062464 1.35385
-0.104074 -0.0380021 1.36123
-0.0893971 -0.0590601 1.35456
-0.0812999 -0.0515628 1.35821
-0.0943521 -0.0510684 1.35837
-0.0945118 -0.0460765 1.35847
-0.104699 -0.0398589 1.36004
-0.0928307 -0.0432079 1.36019
-0.0928256 -0.0432784 1.36014
-0.0978728 -0.0488457 1.3575
-0.0913244 -0.0609284 1.35418
-0.0988494 -0.0365821 1.36187
-0.0973877 -0.0350773 1.36309
-0.0944367 -0.0466767 1.3581
-0.0976915 -0.0386642 1.3616
-0.092364 -0.043771 1.35986
-0.0954813 -0.033775 1.36315
-0.0848928 0.0472429 1.53688
-0.0830713 -0.0257299 1.36822
-0.0847976 -0.0632064 1.35372
-0.103529 -0.0321988 1.36325
-0.0873476 -0.057843 1.3556
-0.0866373 -0.0609033 1.35479
-0.0948118 -0.0493779 1.36235
-0.0787778 -0.0550739 1.35176
-0.0868526 -0.0587161 1.35523
-0.104584 -0.0491471 1.35497
-0.0906096 -0.0640941 1.35278
-0.104615 -0.0430067 1.35891
-0.0847236 -0.0616395 1.35424
-0.0921412 -0.0390561 1.36163
-0.0983764 -0.029081 1.3648
-0.0907431 -0.0345666 1.36194
-0.0992068 -0.0289119 1.36397
-0.077768 -0.0267729 1.3663
-0.087288 -0.0597136 1.35522
-0.0878926 -0.059677 1.35516
-0.0886057 -0.0542127 1.35717
-0.088795 -0.0559429 1.35699
-0.0831544 -0.0614516 1.35419
-0.0995386 -0.04722 1.35718
-0.0847625 -0.0360058 1.3633
-0.0868691 -0.0622819 1.35457
-0.0860944 -0.0637287 1.35377
-0.0886338 -0.0563408 1.3562
-0.0929742 -0.0633514 1.35348
-0.0887104 -0.0613156 1.35424
-0.0891055 -0.0718603 1.34015
-0.0866419 -0.0518475 1.35561
-0.0915033 -0.0611271 1.35444
-0.0840266 -0.0620703 1.35442
-0.0861023 -0.0493323 1.35785
-0.0855991 -0.0460241 1.36009
-0.0876207 -0.0483981 1.35808
-0.0813241 -0.0620787 1.35361
-0.10515 -0.0506215 1.35542
-0.0885831 -0.0569755 1.35469
-0.0852578 -0.0491848 1.35805
-0.0867102 -0.0579124 1.35543
-0.1017 -0.0302079 1.36478
-0.0993517 -0.0476373 1.35471
-0.0995209 -0.0328907 1.36327
-0.0941991 -0.0628125 1.354
-0.0826465 -0.0641496 1.35151
-0.086321 -0.0637988 1.35367
-0.100707 -0.0407651 1.35958
-0.0889295 -0.0584349 1.35522
-0.109261 -0.0266656 1.36554
-0.0943385 -0.0606277 1.35463
-0.0954375 -0.0573196 1.36148
-0.0947137 -0.0371818 1.36275
-0.0896328 -0.056981 1.3555
-0.0956004 -0.0359134 1.36069
-0.0938555 -0.0449996 1.35859
-0.0878219 -0.0604268 1.3548
-0.0911921 -0.0352921 1.36295
-0.0867922 -0.0606377 1.3547
-0.102622 -0.0437871 1.35775
-0.0823463 -0.0386387 1.3617
-0.104789 -0.041387 1.35986
-0.103431 -0.0411961 1.35976
-0.0989728 -0.039321 1.36056
-0.101333 -0.0395113 1.36019
-0.102562 -0.0412845 1.35964
-0.103646 -0.0380583 1.36124
-0.100244 -0.0511477 1.35266
-0.0982044 -0.0440353 1.35917
-0.0977219 -0.0418243 1.35989
-0.104225 -0.0419124 1.3594
-0.101073 -0.0406259 1.3592
-0.0923781 -0.0422214 1.36051
-0.102102 -0.0431246 1.35867
-0.0754131 -0.0411741 1.35776
-0.0977091 -0.0417396 1.35998
-0.0917644 -0.0471973 1.3586
-0.0874773 -0.047306 1.35885
-0.0913371 -0.0466402 1.35883
-0.0986998 -0.0483698 1.35632
-0.095681 -0.0363173 1.36196
-0.1027 -0.0389722 1.36053
-0.104588 -0.0430598 1.35887
-0.104588 -0.0430598 1.35887
-0.0813482 -0.0388267 1.36238
-0.0983366 -0.0410346 1.36002
-0.0984683 -0.0373734 1.3629
-0.0924034 -0.044144 1.35951
-0.0962447 -0.0443642 1.35891
-0.101403 -0.0405961 1.35999
-0.0986508 -0.050354 1.35302
-0.0930119 -0.0428788 1.35985
-0.091106 -0.0608304 1.35394
-0.101981 -0.0417192 1.36003
-0.10162 -0.0419966 1.35935
-0.101624 -0.0419544 1.35941
-0.0977707 -0.052655 1.35289
-0.10024 -0.0429483 1.35866
-0.0921013 -0.0469839 1.35871
-0.0920965 -0.0469781 1.35872
-0.103124 -0.0484528 1.35626
-0.092803 -0.0449533 1.3591
-0.101376 -0.0407433 1.35984
-0.0844281 -0.0406639 1.36166
-0.0925313 -0.0506921 1.35706
-0.101411 -0.0422292 1.35962
-0.101443 -0.0420312 1.3598
-0.102581 -0.0411567 1.35973
-0.0984921 -0.042978 1.3597
-0.0982289 -0.0496076 1.35425
-0.0838625 -0.0391738 1.36306
-0.0897321 -0.0428861 1.35998
-0.0923592 -0.0425484 1.36018
-0.100524 -0.041634 1.35973
-0.0997076 -0.0537642 1.35288
-0.0914239 -0.0437628 1.36004
-0.0914239 -0.0437628 1.36004
-0.105155 -0.0454288 1.35757
-0.0911479 -0.0469053 1.35906
-0.0825774 -0.0634343 1.35316
-0.10025 -0.0449268 1.35912
-0.0978181 -0.048458 1.35567
-0.101413 -0.0510622 1.35276
-0.0972173 -0.0505377 1.35505
-0.0886317 -0.057542 1.35517
-0.103152 -0.0639491 1.35236
-0.102245 -0.0638292 1.35275
-0.102245 -0.0638292 1.35275
-0.0867488 -0.0472819 1.35853
-0.0929437 -0.052303 1.35762
-0.0820142 -0.0525322 1.35668
-0.103333 -0.0633006 1.35766
-0.0801175 -0.0663893 1.35368
-0.0854776 -0.0610823 1.35449
-0.0899645 -0.0461188 1.35891
-0.100745 -0.0494672 1.35433
-0.037271 -0.0104454 1.58322
-0.097492 -0.0491514 1.35647
-0.0918207 -0.0428124 1.36018
-0.0594295 0.00225252 1.53942
-0.0419303 -0.0191668 1.54977
-0.10317 -0.063916 1.35248
-0.0864482 -0.0470445 1.35813
-0.0788916 -0.047345 1.36074
-0.0970249 -0.0485474 1.35799
-0.0980481 -0.0498508 1.35537
-0.0720589 -0.0418922 1.36103
-0.0959023 -0.051762 1.35809
-0.0960897 -0.0494374 1.35617
-0.0819312 -0.0515469 1.35776
-0.0937597 -0.0635618 1.35348
-0.0522945 0.00283445 1.56914
-0.0717938 0.0208459 1.47875
-0.0377397 -0.0176585 1.59931
-0.0912675 -0.030017 1.38713
-0.101641 -0.0647159 1.35173
-0.0850211 -0.0511951 1.35796
-0.101629 -0.0638136 1.3522
-0.097821 -0.046851 1.35795
-0.0866298 -0.0407685 1.36132
-0.0861192 -0.0505422 1.35319
-0.0971426 -0.0440645 1.35945
-0.052818 -0.00106748 1.54084
-0.0931401 -0.046984 1.35795
-0.0617673 -0.0347832 1.46524
-0.0588075 -0.00955601 1.50529
-0.0879892 -0.0617903 1.35249
-0.0938918 -0.0553469 1.36066
-0.0863459 -0.0523883 1.35714
-0.0891373 -0.0661828 1.34405
-0.0856135 -0.0636547 1.35465
-0.0968562 -0.0548757 1.3553
-0.0935467 -0.0517146 1.37509
-0.0805283 -0.0423364 1.36016
-0.0900589 -0.0443423 1.35911
-0.0920507 -0.0523296 1.36149
-0.0856966 -0.0492566 1.36151
-0.0818034 -0.0623332 1.353
-0.0896823 -0.0450028 1.35954
-0.0877691 -0.0593265 1.35467
-0.0974294 -0.0545404 1.35515
-0.0917997 -0.0462375 1.3576
-0.0894214 -0.044717 1.3601
-0.0868154 -0.0491737 1.35884
-0.0939111 -0.0470869 1.35837
-0.0901756 -0.0475653 1.35857
-0.0938741 -0.0535323 1.35719
-0.0908914 -0.0484874 1.36255
-0.0900653 -0.0516266 1.35889
-0.0898906 -0.0584303 1.3549
-0.0200572 0.00144299 1.58546
-0.0836889 -0.0498841 1.36234
-0.0875724 -0.0493318 1.35929
-0.0846707 -0.0581813 1.35183
-0.093619 -0.0573592 1.35691
-0.0834211 -0.0474705 1.35967
-0.0876609 -0.0609074 1.35395
-0.0917575 -0.0471094 1.35869
-0.0976083 -0.0510769 1.35491
-0.0854359 -0.0641193 1.35148
-0.0950378 -0.054142 1.35818
-0.0940563 -0.0525847 1.35719
-0.0972994 -0.0658461 1.33331
-0.0939328 -0.0464813 1.35889
-0.0912214 -0.0610395 1.35417
-0.0931349 -0.0609457 1.35824
-0.0868064 -0.0579946 1.35519
-0.0975961 -0.0511315 1.35459
-0.0895327 -0.061331 1.35433
-0.0823428 -0.0493358 1.35856
-0.0880911 -0.0496026 1.36
-0.0953562 -0.0612994 1.35645
-0.0818191 -0.0524616 1.35685
-0.0891511 -0.0607489 1.35355
-0.0873844 -0.0432044 1.35961
-0.0899621 -0.0576282 1.35501
-0.0894175 -0.0567148 1.35507
-0.0873816 -0.0581948 1.35458
-0.0903286 -0.0477183 1.35828
-0.0857027 -0.0612352 1.35415
-0.0850569 -0.0641123 1.35201
-0.0983443 -0.052799 1.35375
-0.0988599 -0.0551283 1.35317
-0.0973895 -0.0534386 1.35417
-0.00769064 0.0140496 1.47462
-0.0904818 -0.0457477 1.36056
-0.0937683 -0.0491245 1.35937
-0.0914073 -0.0611394 1.35382
-0.0878827 -0.0593631 1.35453
-0.0847869 -0.0467556 1.36225
29.0938 2.13503 29.1188
-0.0911397 -0.0615509 1.35354
-0.09046 -0.06138 1.35362
-0.0886081 -0.0420713 1.36294
-0.0891892 -0.0427222 1.36211
-0.0901084 -0.0611048 1.35411
-0.0910816 -0.0610308 1.3541
-0.0883653 -0.0490252 1.35828
-0.0908704 -0.0423995 1.36232
-0.0859955 -0.0462188 1.35901
-0.0919706 -0.0505509 1.35959
-0.0821355 -0.0353368 1.37035
-0.0946305 -0.0464753 1.35727
-0.0880361 -0.0490599 1.36369
-0.0880421 -0.049063 1.36369
-0.044506 -0.011034 1.38368
-0.0931633 -0.0513295 1.35801
-0.0955928 -0.0499005 1.35732
-0.0896412 -0.0530955 1.35591
-0.0921143 -0.0616958 1.35261
-0.0919563 -0.0469662 1.36351
-0.0931449 -0.0614011 1.35208
-0.0936787 -0.0465204 1.35891
-0.0848163 -0.0475131 1.36157
-0.0788637 -0.0377806 1.36504
-0.0918493 -0.0616792 1.35289
-0.0793399 -0.0360384 1.36417
-0.0877845 -0.0487015 1.35893
-0.0880677 -0.0399487 1.36386
-0.0884284 -0.0614432 1.35352
-0.0898641 -0.0451349 1.36145
-0.0849436 -0.0474251 1.36157
-0.0791426 -0.0362045 1.36711
-0.0791426 -0.0362045 1.36711
-0.092571 -0.0583139 1.35251
-0.0879431 -0.0435881 1.36383
-0.0855131 -0.0510024 1.35942
3.73469 2.74377 4.93017
-0.084103 -0.0426589 1.37321
-0.0925967 -0.0470096 1.35805
-0.0887317 -0.061809 1.35149
-0.0837868 -0.0408615 1.36178
-0.0874835 -0.0554587 1.35611
-0.0865494 -0.0487951 1.35959
-0.0906565 -0.0507009 1.36033
-0.0919258 -0.0587924 1.35573
-0.0758353 -0.048293 1.36572
-0.0871867 -0.055815 1.35293
-0.0906804 -0.0507147 1.3603
-0.0340567 -0.00761091 1.4379
-0.0884548 -0.0583727 1.35516
-0.0121644 -0.056723 1.50763
-0.0345021 -0.00598614 1.43665
0.0105887 -0.0528093 1.56498
-0.0953589 -0.0581028 1.35084
-0.0943202 -0.0633118 1.35325
-0.0885069 -0.0617802 1.3539
-0.089892 -0.0568592 1.35588
-0.0878424 -0.0572963 1.35548
-0.0878424 -0.0572963 1.35548
-0.0944314 -0.0560251 1.3545
-0.0857841 -0.0608463 1.3544
-0.0894979 -0.0601237 1.35777
-0.090673 -0.06052 1.3543
-0.0848568 -0.0473782 1.35894
0.0452137 -0.0131588 1.71263
-0.0979635 -0.0569892 1.35622
-0.0939099 -0.0571437 1.35441
-0.0617941 -0.027826 1.70419
-0.0864745 -0.0572459 1.35565
61.1276 63.8631 3333.94
-0.0945461 -0.0609417 1.35405
-0.0823981 -0.0623637 1.3545
-0.0717572 0.00952251 1.91327
-0.0947775 -0.0596871 1.35561
-0.0933058 -0.0525331 1.35572
-0.0654201 -0.0570041 1.40469
-0.0841631 -0.0610803 1.35443
-0.0885481 -0.0585273 1.35602
-0.0890203 -0.0602359 1.35488
-0.218533 0.0413768 3.84386
-0.0372495 -0.0083889 1.8689
-0.0838106 -0.0621576 1.35441
-0.0985582 -0.0549585 1.3601
-0.0941088 -0.0629932 1.35316
-0.0943575 -0.0572693 1.3556
-0.0836982 -0.0531238 1.35726
-0.0986362 -0.0514797 1.35866
-0.142535 0.012315 1.58819
-0.0626878 -0.03259 1.86309
-0.159839 -0.000695087 1.65545
-0.0823017 -0.0607386 1.3541
-0.152963 0.0106559 1.5932
-0.0963392 -0.0530044 1.35301
-0.0849646 -0.0620177 1.35423
-0.0866818 -0.0564031 1.35622
-0.0978436 -0.061774 1.35198
-0.103938 -0.0607966 1.38007
-0.0939776 -0.0586529 1.35508
-0.0906608 -0.0610504 1.35414
-0.0820551 -0.0663704 1.35412
-0.0917781 -0.0468918 1.35911
-0.0837355 -0.0535347 1.35709
-0.105381 -0.0638815 1.35261
-0.0844745 -0.0469625 1.35914
-0.0825198 -0.0527442 1.35747
-0.0948983 -0.0623567 1.35485
-0.0876606 -0.0503629 1.35751
-0.106644 -0.0656888 1.35218
-0.0876606 -0.0503629 1.35751
-0.106644 -0.0656888 1.35218
-0.0873097 -0.0558615 1.35614
-0.0939383 -0.0598627 1.35363
-0.0902778 -0.0463967 1.35901
-0.0901056 -0.0455926 1.35926
-0.097676 -0.0509621 1.35344
-0.0971787 -0.0525112 1.35245
-0.107992 -0.0594781 1.35272
-0.0817969 -0.0568262 1.35637
-0.112892 -0.0585688 1.3554
-0.0938841 -0.0627016 1.35337
-0.112892 -0.0585688 1.3554
-0.111403 -0.0586459 1.35609
-0.11503 -0.0586307 1.35358
-0.115555 -0.0584717 1.3541
-0.114653 -0.0581599 1.35347
-0.0895659 -0.0476435 1.35645
-0.0999746 -0.0468107 1.35813
-0.106481 -0.0490003 1.35803
-0.0861095 -0.0613564 1.35449
-0.0821378 -0.0521015 1.35705
-0.109437 -0.0642502 1.34975
-0.0837542 -0.0538785 1.35699
-0.1141 -0.0583332 1.35293
-0.0996124 -0.0498347 1.35616
-0.0838109 -0.0621658 1.35434
-0.102794 -0.0652503 1.35169
-0.0869959 -0.0571343 1.35571
-13.1735 7.8387 39.4824
-0.0962294 -0.0521597 1.35767
-0.0899057 -0.0583494 1.35511
-0.101733 -0.0447736 1.36454
-0.0875152 -0.0586239 1.35517
-0.0908241 -0.0471017 1.35877
-0.0864718 -0.0562678 1.35594
-0.0844599 -0.0538702 1.35693
-0.0940262 -0.0582831 1.35495
-0.0903468 -0.0507055 1.35644
-130.724 3.30773 1932.6
-0.0858284 -0.0608395 1.35426
-0.0898533 -0.0488811 1.3611
-0.0816842 -0.0505079 1.36003
-0.0881399 -0.0501458 1.35795
-0.0816239 -0.0537253 1.35769
-0.0949714 -0.051204 1.35629
-0.0880593 -0.050596 1.3591
-0.0940853 -0.0528491 1.35611
-0.0974467 -0.052075 1.35302
-0.103619 -0.0650398 1.35093
-0.086492 -0.0572542 1.3556
-0.0892934 -0.0613386 1.35409
-0.0840005 -0.0532954 1.3572
-0.090959 -0.0612324 1.35405
-0.0879511 -0.0528803 1.35356
-0.095746 -0.0501937 1.35742
-0.0977413 -0.0513608 1.35289
-0.0814517 -0.0560063 1.35761
-0.0835065 -0.0618298 1.3558
-0.0864716 -0.0577527 1.35559
-0.0864544 -0.0577448 1.35562
-0.0862965 -0.0564959 1.35681
-0.092588 -0.0516974 1.35665
-0.0822252 -0.0520419 1.35765
-0.0845383 -0.053817 1.35687
-0.0979123 -0.0487543 1.35751
-0.0985443 -0.0493144 1.35777
-0.0902835 -0.0468933 1.35907
-0.104423 -0.0603454 1.35348
-0.100555 -0.048992 1.35611
-0.0813088 -0.0520351 1.35747
-0.0998478 -0.0489582 1.3549
-0.0897886 -0.0458533 1.35929
-0.0925455 -0.046204 1.35894
-0.0901532 -0.0457143 1.359
-0.0887119 -0.0583661 1.35508
-0.0988301 -0.0498833 1.35459
-0.0952417 -0.0487973 1.35693
-0.0937823 -0.0522265 1.3568
-0.0869774 -0.0571527 1.35572
-0.0881206 -0.0585368 1.34293
-0.0875135 -0.0573572 1.35561
-0.0847693 -0.0614959 1.3554
-0.10478 -0.0599115 1.35435
-0.0926566 -0.0523089 1.3607
-0.0864678 -0.0572593 1.35573
-0.0940853 -0.0524351 1.35685
-0.0876945 -0.0561705 1.35604
-0.104382 -0.0607435 1.35335
-0.0846858 -0.0482295 1.35862
-0.0864742 -0.0567359 1.35585
-0.0864909 -0.0567329 1.35584
-0.0891046 -0.058208 1.35505
-0.101275 -0.0490371 1.35713
-0.0847756 -0.0471479 1.35966
-40.7725 -190.732 694.195
-0.0895763 -0.0577428 1.35483
-0.0865925 -0.0587705 1.35595
-0.144429 -0.279319 2.08574
-0.143728 -0.299534 2.05203
-0.151948 -0.289782 2.08121
-0.140044 -0.273908 2.01852
-0.142447 -0.285545 2.05378
-0.0929009 -0.0609988 1.35414
-0.134754 -0.295809 2.07775
-0.144453 -0.303148 2.06248
-0.127214 -0.28069 1.95824
-0.10467 -0.0651278 1.3543
-0.147491 -0.400351 2.15216
-0.0864858 -0.056734 1.35582
-0.0972899 -0.0543633 1.404
-0.149156 -0.400167 2.02967
-0.15677 -0.448876 2.25202
-0.0876518 -0.0572305 1.35517
-0.0935163 -0.051922 1.35715
-0.094075 -0.0591033 1.3609
-0.0840873 -0.0532567 1.35702
-0.168176 -0.238819 1.96213
-0.158674 -0.19827 1.892
-0.0826313 -0.0489667 1.35706
-0.124001 -0.223962 1.88676
-0.0933037 -0.0527042 1.3568
-0.0966791 -0.0499583 1.35692
-0.0975928 -0.049924 1.35796
-0.143185 -0.395519 2.07049
-0.0887057 -0.0570345 1.35436
-0.0827183 -0.049289 1.35797
-0.0949216 -0.0500644 1.35808
-0.0963006 -0.0507435 1.36694
-0.146099 -0.372264 2.00664
-0.161655 -0.387555 2.00446
-0.0752915 -0.062037 1.37217
-0.0858455 -0.0611865 1.354
-0.143519 -0.341593 1.99596
-0.087688 -0.0567387 1.35577
-0.0873148 -0.0580228 1.35542
-0.191765 -0.329226 2.04217
-0.162401 -0.451686 2.05664
-0.162401 -0.451686 2.05664
-0.174029 -0.308657 2.10996
-0.0871327 -0.0612878 1.354
-0.226781 -0.578198 2.36589
-0.206914 -0.353784 2.1175
-0.223844 -0.679128 2.42836
-0.205178 -0.367866 2.13867
-0.204337 -0.514576 2.16168
-0.08427 -0.0617544 1.35486
-0.0864564 -0.0562516 1.35614
-0.21076 -0.328562 2.08362
-0.199316 -0.409166 2.06418
-0.288978 -1.06388 3.04369
-0.142318 -0.413321 1.98083
-0.0844919 -0.0529115 1.35681
-0.102534 -0.0644589 1.35311
-0.16115 -0.631241 2.27236
-0.0817037 -0.068558 1.35801
-0.103774 -0.0647068 1.35297
-0.278162 -0.73624 2.48723
-0.248042 -0.403524 2.34887
-0.226303 -0.611896 2.18697
-0.227825 -0.618368 2.1964
-0.222132 -0.593944 2.15971
-0.193439 -0.286422 1.97034
-0.232807 -0.346224 2.18859
-0.199897 -0.400076 1.99501
-0.0823926 -0.0672867 1.35611
-0.0818829 -0.0537935 1.35794
-0.193208 -0.614232 2.13036
-0.0936256 -0.0512577 1.35558
-0.244681 -0.746071 2.37078
-0.153574 -0.443727 1.89122
-0.170818 -0.297901 2.07892
-0.0827307 -0.0528358 1.35694
-0.0881361 -0.0648341 1.35485
-0.0937689 -0.0521909 1.35649
-0.0835587 -0.052009 1.35747
-0.0832211 -0.0531377 1.35717
-0.093762 -0.0525198 1.35757
-0.0772692 -0.0515266 1.3658
-0.0889651 -0.0520788 1.35685
-0.0905511 -0.0517971 1.35615
-0.0866786 -0.0635174 1.35326
-0.0909447 -0.0512646 1.35624
-0.0896942 -0.0519019 1.35669
-0.104049 -0.050676 1.35804
-0.0975418 -0.0501014 1.35719
-0.0881525 -0.0518744 1.35699
-0.103359 -0.050228 1.35852
-0.0944119 -0.0672559 1.35714
-0.0882286 -0.0509071 1.35643
-0.0976523 -0.0498561 1.3582
-0.0829441 -0.0507209 1.35412
-0.0851882 -0.0517729 1.35551
-0.098819 -0.048861 1.35803
-0.105063 -0.0513833 1.36094
-0.1749 -0.29908 2.00352
-0.0938881 -0.0516675 1.3572
-0.0883707 -0.0494592 1.36006
-0.0930488 -0.0518871 1.35815
-0.0823602 -0.071965 1.36193
-0.101025 -0.0495211 1.3587
-0.101498 -0.0484444 1.35802
-0.0907622 -0.0474605 1.35852
-0.0962325 -0.0474374 1.36014
-0.10419 -0.0484963 1.35813
-0.0950808 -0.0491749 1.3598
-0.0932373 -0.0473555 1.35868
-0.0906873 -0.0487786 1.36565
-0.10367 -0.0470472 1.35976
-0.0908373 -0.0467555 1.35776
-0.221482 -0.688133 2.69793
-0.0852999 -0.052165 1.35571
-0.0857962 -0.0524636 1.35871
-0.0943929 -0.0518039 1.35702